x	y	z
0.036575118		9.419702507		-0.51790678
-0.303757539		9.396528391		-0.606810268
0.723722214		9.370398157		-0.681758175
0.065474187		9.419545732		-0.51790678
-0.274840411		9.394423803		-0.60661703
0.752067515		9.363162437		-0.681396434
0.094372636		9.419300722		-0.51790678
-0.246017439		9.395222654		-0.60661703
0.779960708		9.350871739		-0.680672952
0.123309395		9.421962013		-0.518071468
-0.217076845		9.390945552		-0.606294987
0.808043443		9.341479707		-0.680166492
0.152214992		9.421539578		-0.518071468
-0.18846481		9.401544317		-0.606939075
0.836609871		9.337962759		-0.680094132
0.181099958		9.420029456		-0.518016572
-0.159671217		9.405072041		-0.607132313
0.865990803		9.34329731		-0.680672952
0.209977099		9.418431098		-0.517961675
-0.130816106		9.405516992		-0.607132313
0.89503194		9.34456775		-0.680962333
0.23884612		9.416744504		-0.51790678
-0.101948952		9.404876163		-0.607067939
0.923892729		9.343763443		-0.681107054
0.26765003		9.412973634		-0.517742092
-0.073125743		9.409136721		-0.607325551
0.953161768		9.346838176		-0.681541154
0.296244394		9.403126406		-0.517248029
-0.044361839		9.431270544		-0.608742592
0.98235412		9.348829983		-0.681902895
0.324953363		9.39818152		-0.517028387
-0.01543343		9.435353676		-0.609000203
1.011245796		9.347755221		-0.682047615
0.353747496		9.396141981		-0.51697349
0.013499609		9.425378196		-0.608356116
1.039478333		9.340643192		-0.681758175
0.382857169		9.401996459		-0.517357821
0.042411707		9.424294277		-0.608291742
1.067223343		9.329483262		-0.681179413
0.41174395		9.401775533		-0.517412717
0.071256862		9.415138913		-0.607712028
1.098285033		9.346966432		-0.682698736
0.440632996		9.401465416		-0.517467613
0.100162989		9.416871151		-0.607840833
1.127791924		9.350484439		-0.683205196
0.469274988		9.396080299		-0.517248029
0.1289847		9.411530442		-0.607518789
1.156596006		9.347970901		-0.683277557
0.497465158		9.382631367		-0.51658922
0.157858257		9.411090166		-0.607518789
1.186273706		9.352293744		-0.683856377
0.526080591		9.378070179		-0.516424532
0.186849125		9.416547868		-0.607905265
1.216631672		9.361468372		-0.684796939
0.554967544		9.37840561		-0.516534324
0.215874949		9.421916379		-0.608291741
1.242714975		9.337918109		-0.683349916
0.583613419		9.374665489		-0.516424532
0.244572622		9.413229139		-0.607776459
1.272165173		9.339991609		-0.683784018
0.612176471		9.369841495		-0.516259844
0.273537792		9.415427592		-0.607969639
1.299575056		9.327153899		-0.683132837
0.641124305		9.370907846		-0.516424532
0.302678941		9.422522664		-0.608484921
1.323964249		9.293500781		-0.680962334
0.669585979		9.364912692		-0.516204948
0.331339723		9.41456921		-0.608034072
1.356637257		9.318017468		-0.683060536
0.699279425		9.375758924		-0.516918595
0.36006901		9.409519195		-0.607776459
1.38844608		9.335514599		-0.684652218
0.728581791		9.380538333		-0.517302925
0.389017755		9.410364296		-0.607905265
1.414534736		9.314448439		-0.683422277
0.757437826		9.379253779		-0.517357821
0.417753681		9.406136302		-0.607712028
1.444784957		9.32090576		-0.684218117
0.786292842		9.377880985		-0.517412717
0.446704007		9.406803973		-0.607840833
1.474309055		9.322340516		-0.684652218
0.814108771		9.364482808		-0.516808803
0.475309587		9.400405371		-0.607518789
1.504173237		9.325650633		-0.685231039
0.842745277		9.360946075		-0.516753907
0.50366633		9.389935033		-0.606939075
1.529539999		9.301309398		-0.683784018
0.870904776		9.352351503		-0.516424532
0.532189355		9.383363769		-0.606617031
1.560541769		9.311327579		-0.684869298
0.898254496		9.335720768		-0.515655989
0.560676757		9.376706174		-0.606294987
1.589604717		9.309445293		-0.685086319
0.92699052		9.33391535		-0.515710885
0.588126466		9.354026349		-0.604942378
1.620892467		9.320247309		-0.686243902
0.957046387		9.344933486		-0.516479428
0.616558728		9.34819554		-0.604684708
1.649652862		9.316212494		-0.686316261
0.987073788		9.354862021		-0.517193133
0.645648045		9.352232852		-0.605071184
1.677165381		9.305218198		-0.685882161
1.015661646		9.350796787		-0.517138237
0.675557618		9.367129152		-0.606166181
1.706425163		9.303952764		-0.6861716
1.044233802		9.346644263		-0.517083282
0.704217504		9.364017671		-0.606101749
1.733497825		9.290829776		-0.685592779
1.072903987		9.343397223		-0.517083283
0.733721495		9.371761363		-0.606745895
1.76162158		9.283508419		-0.68544806
1.103786139		9.358901775		-0.518126363
0.761984568		9.363498082		-0.606359418
1.791606333		9.285894943		-0.686026881
1.132253753		9.35348888		-0.518016572
0.790455836		9.358133468		-0.606166181
1.821430299		9.287205198		-0.686533341
1.159591077		9.339071838		-0.517412717
0.818640167		9.349699427		-0.605779704
1.85225387		9.293310955		-0.687401542
1.190254632		9.351318068		-0.518291051
0.847681198		9.351119198		-0.606037375
1.218163796		9.341681733		-0.517961676
0.876645468		9.351456045		-0.606230613
1.246289387		9.333941745		-0.517742092
0.903503561		9.329850249		-0.605006811
1.274919659		9.33007412		-0.517742092
0.932222167		9.328026968		-0.605071184
1.3043673		9.332052007		-0.518071467
0.963085966		9.34696181		-0.606488225
1.333838979		9.333936877		-0.518400843
0.991862794		9.344955365		-0.606552657
1.361458823		9.322884642		-0.518016571
1.02117824		9.347820737		-0.606939075
1.39108576		9.325577203		-0.518400843
1.049852135		9.344644075		-0.606939075
1.418336587		9.312381991		-0.51790678
1.076799319		9.326508524		-0.605972942
1.450120675		9.328705346		-0.519059652
1.106230153		9.33009812		-0.606423793
1.479359507		9.328157688		-0.519279236
1.133402852		9.314772985		-0.605650899
1.510681143		9.340331531		-0.520212467
1.164075588		9.328086181		-0.606745895
1.54014203		9.34057916		-0.520487005
1.193827726		9.33337942		-0.607325551
1.567302049		9.326947451		-0.519992883
1.222586193		9.330662239		-0.607389983
1.596077827		9.323079896		-0.520047779
1.25173728		9.330823691		-0.607647595
1.625187627		9.321089608		-0.520212466
1.280086516		9.324962178		-0.607518789
1.655172906		9.323925347		-0.520651693
1.304942755		9.29430939		-0.605779705
1.683947981		9.319786346		-0.520706589
1.333451164		9.290261695		-0.605779704
1.713074492		9.317521749		-0.520871276
1.362381416		9.289088817		-0.605972942
1.741652183		9.31222204		-0.520871276
1.396491518		9.322368816		-0.608420548
1.77133294		9.312721102		-0.521200652
1.426292413		9.32593181		-0.60893583
1.799895536		9.307242011		-0.521200651
1.454743472		9.320525937		-0.608871397
1.829982017		9.309514815		-0.521639819
1.486312912		9.334744258		-0.6100952
1.510466201		9.302559132		-0.608291742
2.582571521		9.318333088		-0.701437542
1.539650827		9.301819946		-0.608549354
2.610878384		9.309405985		-0.701365182
1.571500725		9.316732899		-0.609837588
2.642966467		9.313825002		-0.702305743
1.604639628		9.338422144		-0.611576673
2.674831064		9.317177258		-0.703173945
1.634830128		9.342301957		-0.612156328
2.706462873		9.319462753		-0.703969786
2.011137961		9.321102604		-0.52427494
1.663484263		9.33724246		-0.612156328
2.7341986		9.308244618		-0.703752765
2.038230344		9.308061435		-0.523890669
1.691766594		9.330131089		-0.612027522
2.759902685		9.290251977		-0.703029225
2.066993869		9.302738775		-0.523945564
1.720383082		9.324896983		-0.612027522
2.793270178		9.297979376		-0.704259167
2.098378871		9.309016078		-0.524659211
1.748983376		9.319575569		-0.612027523
2.824101783		9.297000124		-0.704837987
2.125148399		9.294747843		-0.524220044
1.776631801		9.30926401		-0.611705478
2.855539615		9.297826571		-0.705561527
2.157713958		9.305692317		-0.525208229
1.803092931		9.29299337		-0.610996958
2.88523431		9.292832181		-0.705850908
2.186710237		9.30097311		-0.525318021
2.917613299		9.296307764		-0.706791469
2.216624029		9.300048038		-0.525647396
2.951850229		9.305376084		-0.708166131
2.243035309		9.284469223		-0.525153275
2.983125469		9.304824126		-0.708817253
2.273646183		9.286272493		-0.525647397
3.022417254		9.328837297		-0.711349556
2.305731771		9.293789642		-0.526470835
3.054126804		9.328999461		-0.712073038
2.337154894		9.298292642		-0.527129645
1.975297635		9.265062546		-0.611447809
3.083359861		9.321479209		-0.712217757
2.366163422		9.293014217		-0.527239437
2.012789378		9.300898891		-0.614217458
3.114155958		9.318597058		-0.712724217
2.395410717		9.288611677		-0.527404124
2.04580988		9.315148287		-0.615570066
3.110827889		9.214501833		-0.705489168
2.080022063		9.334153125		-0.617244777
2.10644875		9.317993553		-0.61660063
2.132126642		9.298842723		-0.615763304
2.160419104		9.29128518		-0.61569893
2.197615869		9.321523121		-0.618146535
2.577463055		9.284316935		-0.529764707
2.222491961		9.299207349		-0.617115912
2.605934704		9.276365768		-0.529764707
2.250306176		9.289435672		-0.616922733
2.279746973		9.286364927		-0.617180345
2.668323194		9.279393174		-0.530862684
2.30967162		9.285137096		-0.617566821
2.696221648		9.269245949		-0.530752892
2.347170209		9.313811182		-0.619949993
2.728028413		9.272424816		-0.531411643
2.367588124		9.274658456		-0.617824433
2.763297176		9.286980462		-0.532729204
2.792639255		9.281327193		-0.532893891
2.826332164		9.289910771		-0.533882076
2.852177934		9.272606301		-0.533388013
2.738405846		9.286518367		-0.624909577
1.83187948		4.371377794		-0.518746387
2.772016979		9.295287314		-0.626069006
1.856892452		4.39320604		-0.522010278
2.799080824		9.281961932		-0.625746962
1.881276903		4.413092944		-0.525056612
2.833365343		9.292421583		-0.627035138
1.933284484		4.496798163		-0.535718751
3.234247007		9.283921822		-0.540524716
2.859508993		9.276055723		-0.626519856
1.900015779		4.382313982		-0.522771848
3.26006344		9.266420189		-0.540085549
2.891813796		9.27962491		-0.627357182
1.873629463		4.285382513		-0.51189215
3.288142694		9.255433481		-0.540030653
2.922368313		9.277372306		-0.627808091
1.872732563		4.247778501		-0.508084189
3.313151115		9.235904132		-0.539481635
2.950817294		9.268362358		-0.62780809
1.884544417		4.239288111		-0.507757795
2.988713569		9.288714521		-0.629804787
1.889003179		4.21443729		-0.505473089
3.021516936		9.292787853		-0.630706545
1.888414836		4.178728738		-0.501882744
3.358877241		9.255902192		-0.635537323
3.380048899		9.225876672		-0.634184715
3.415261031		9.234182554		-0.635472891
3.444970955		9.227400721		-0.635730561
1.777510344		3.362328375		-0.55815805
1.783631632		3.348999853		-0.556851219
1.784385601		3.37271527		-0.596492616
1.796118708		3.369840752		-0.596955926
1.819535577		3.388687162		-0.601280599
1.801424509		3.457768621		-0.50146443
1.934844333		3.107690644		-0.537248862
1.92229835		3.06653098		-0.531150411
1.926416659		3.052252048		-0.529698383
1.937894271		3.049667772		-0.530279171
2.024930388		3.101878675		-0.543637765
2.033893845		3.094824914		-0.543492568
1.71942949		3.297098881		-0.514993316
1.737829584		3.307591845		-0.517462675
1.743587364		3.175194867		-0.501686397
1.743252273		3.151628345		-0.498805469
1.754359446		3.148861255		-0.499217039
1.765465988		3.14605557		-0.499628608
1.776571784		3.14321129		-0.500040177
1.786206631		3.137746098		-0.500040177
1.807156438		3.152015792		-0.503195409
1.806047082		3.105760228		-0.497570817
2.051882558		3.036796817		-0.50758535
3.799877143		4.450558978		-0.640490723
2.067317406		3.039497104		-0.509094362
3.832299136		4.460746631		-0.643645893
3.861568718		4.467016703		-0.646256995
3.884388803		4.465648905		-0.647780191
2.103673643		3.032549493		-0.511152152
3.909200606		4.466426977		-0.649629723
2.115802881		3.030141985		-0.511838082
3.920257061		4.451428992		-0.649194549
3.954333271		4.462444489		-0.652567279
3.989836632		4.474776154		-0.656157565
4.01084842		4.470653689		-0.657354366
4.051188791		4.48784307		-0.661706279
4.076300397		4.487902644		-0.663555812
3.804160695		4.509043939		-0.70168764
4.092732126		4.478310642		-0.663990985
3.810264436		4.488267712		-0.700270301
4.113853541		4.473782257		-0.665187786
3.827886132		4.481087181		-0.700978942
4.142412178		4.477192816		-0.667581331
3.84161607		4.46932198		-0.700978941
4.169674779		4.479014623		-0.669757258
3.86245514		4.465776602		-0.702278144
4.190872007		4.474181771		-0.670954059
4.225032535		4.483005606		-0.674217951
4.24902643		4.480842224		-0.675849926
4.273732731		4.479292598		-0.677590679
4.299158119		4.478350999		-0.679440213
4.317020885		4.469430068		-0.680093002
4.341797339		4.46757067		-0.681833756
4.370772844		4.469865533		-0.684227358
3.684842279		4.339855825		-0.521226863
4.38864856		4.460686789		-0.684880089
3.700080008		4.330801722		-0.521500388
4.405809999		4.450733715		-0.6854241
3.713998532		4.320185135		-0.521591526
4.421548597		4.439309159		-0.685750496
3.739613594		4.323080319		-0.523323814
4.442183869		4.43274457		-0.686838459
3.754166709		4.313089094		-0.523506145
4.498816577		4.461795457		-0.693475138
3.773942595		4.309042701		-0.524417858
4.55425294		4.489144075		-0.699894141
3.79702079		4.308650892		-0.525785427
3.820792756		4.308902916		-0.527244132
4.010346203		4.494816829		-0.551495771
4.051392747		4.512874148		-0.555233758
4.067888846		4.503379425		-0.555598478
4.089723124		4.49972128		-0.556692521
3.392944942		3.223479456		-0.512218545
4.115605741		4.500380984		-0.558333616
3.71011964		4.366169702		-0.581083226
3.402818468		3.213054859		-0.512218545
4.173897065		4.536098795		-0.564350943
3.771988911		4.411479182		-0.588650692
3.34742235		3.141377918		-0.502426754
4.182381792		4.517426257		-0.563621562
3.840010296		4.463237045		-0.597126293
3.338143608		3.113464859		-0.499598037
4.19554239		4.503844983		-0.563530367
3.873220627		4.474000849		-0.600153315
3.362989316		3.11740047		-0.501882744
4.21819348		4.50039753		-0.564715605
3.879086692		4.453094671		-0.598942506
3.412747695		3.1441134		-0.507866632
4.243595452		4.49975109		-0.566265504
3.918961701		4.471099468		-0.602978515
3.376188612		3.091336384		-0.501012395
4.279315235		4.509826881		-0.569182973
3.924105303		4.449355215		-0.601666796
3.253785295		3.186046516		-0.541649466
3.251265795		2.955660304		-0.644843887
4.318575074		4.523327381		-0.572556357
3.997170038		4.504267884		-0.610747802
3.443015247		3.113903703		-0.50808419
3.250735238		3.163583084		-0.539523488
3.231686756		2.919803356		-0.639180969
4.338640801		4.516519929		-0.573376874
4.021572092		4.503857046		-0.612362251
3.251147068		3.144620378		-0.537988073
3.228850741		2.899298405		-0.636857759
4.349708636		4.500324086		-0.573012213
4.067952026		4.527761663		-0.617306339
3.436110092		3.069540206		-0.504276287
3.256483968		3.130502116		-0.537279432
3.231824838		2.884108733		-0.635696124
4.360717842		4.484102553		-0.572647493
4.099837532		4.535186873		-0.620030629
3.222994455		3.079338159		-0.530192858
3.238437287		2.872210411		-0.635260533
4.375150761		4.471414441		-0.572738687
4.118418308		4.527739151		-0.620736944
3.215144542		3.053025294		-0.527358239
3.261336203		2.874692036		-0.638019336
4.397930745		4.467195962		-0.573923926
4.174606748		4.561319535		-0.627093601
3.221607431		3.0404208		-0.526885813
3.264186356		2.859457225		-0.636857759
4.4410493		4.483397125		-0.577753107
4.18992881		4.549954282		-0.627295421
3.220780503		3.021012083		-0.525232262
3.258019139		2.836436106		-0.633953701
4.456892329		4.47186739		-0.578026633
4.203191891		4.536348924		-0.627194511
3.221317632		3.00299121		-0.523814924
3.250245313		2.812184957		-0.63075925
4.046801551		4.035560199		-0.52323262
4.227265819		4.534347958		-0.628708051
3.242898377		3.00456715		-0.525822823
3.261858365		2.804780416		-0.631340038
4.055626576		4.019620752		-0.522776763
4.222779587		4.501765593		-0.625983703
3.22069052		2.965680361		-0.520744092
3.29903047		2.819185174		-0.636857758
4.235205349		4.487342209		-0.625781941
3.232703918		2.958466995		-0.521216518
3.300876918		2.803286645		-0.635550927
4.285947373		4.513285064		-0.631230521
3.23295001		2.940517633		-0.519799238
3.23979379		3.169979637		-0.582979504
3.28753478		2.774640305		-0.631340038
4.307333883		4.5080271		-0.632340418
3.22648684		2.916601367		-0.517318911
3.241682357		3.152419016		-0.581576291
3.292999456		2.761997993		-0.63075925
4.326659999		4.500529013		-0.633147644
3.216952692		2.89009824		-0.514366215
3.228517224		3.120401669		-0.577494148
3.306017823		2.755683258		-0.631630433
4.340447188		4.487233607		-0.633147643
3.218397096		2.873601759		-0.513185091
3.2294918		3.102236935		-0.57596338
3.31369454		2.744896209		-0.631485235
4.357662864		4.477461124		-0.633652137
3.210857737		2.849214325		-0.510586685
3.215320412		3.069712746		-0.571753683
3.319044654		2.732201748		-0.630904447
4.379732287		4.472601074		-0.634862947
3.22256291		2.841977502		-0.511059112
3.228320456		3.063247245		-0.572391512
3.315158556		2.71198273		-0.628581178
4.392735162		4.458434639		-0.634762036
3.235747564		2.836004516		-0.511767811
3.2254364		3.041760192		-0.570222857
3.321160044		2.699926856		-0.628145587
4.419700811		4.458361177		-0.636679101
3.238442855		2.820846184		-0.510822899
3.230411403		3.027780945		-0.569457474
3.53107106		2.852625537		-0.666188609
4.438276076		4.449711835		-0.637385416
3.273358619		2.833644775		-0.514956719
3.2418624		3.019883998		-0.569840137
3.296000871		2.646050472		-0.620304655
4.447678456		4.431861015		-0.636780012
3.336235501		2.870217007		-0.523460632
3.241650507		3.00116428		-0.568181815
3.638226358		2.902480396		-0.683032107
4.473978086		4.430796323		-0.638596224
3.724342107		2.955599951		-0.520378303
3.323892855		2.841899535		-0.52015353
3.242814125		2.983817611		-0.566778544
3.735733879		2.946006418		-0.520704698
3.333352754		2.832331725		-0.520271665
3.227067504		2.951097233		-0.562441292
3.744754726		2.934531441		-0.520704698
3.312437526		2.797106217		-0.515665418
3.228766527		2.934512061		-0.561165634
3.68628873		2.87050486		-0.511348139
3.321764136		2.787568838		-0.515783496
3.233338102		2.920603599		-0.56040025
3.259369959		3.167033302		-0.629405802
3.673064715		2.842148474		-0.508301805
3.331825681		2.778636742		-0.516019709
3.23711678		2.906032083		-0.559507254
3.261945766		3.150137835		-0.628033942
3.66285399		2.816324236		-0.505690646
3.334218372		2.76333262		-0.515074855
3.220854319		2.873636853		-0.555170003
3.244438676		3.114050644		-0.622820918
3.661208376		2.797228071		-0.504276288
3.322751678		2.736676617		-0.512004024
3.225202523		2.859793663		-0.554404618
3.244659731		3.095193978		-0.621037547
3.675314999		2.790189825		-0.505037914
3.340353106		2.734016903		-0.513421304
3.232472878		2.848574008		-0.554149452
3.234731843		3.066823944		-0.617333535
3.678302895		2.774710504		-0.504276287
3.356428786		2.730021742		-0.514602428
3.244181489		2.84125724		-0.554659727
3.245567411		3.058244094		-0.617607896
3.777024613		2.846182645		-0.694067489
3.654185635		2.738968347		-0.499815595
3.415758503		2.760910006		-0.522397643
3.256623815		2.834546739		-0.555297557
3.255657746		3.048949471		-0.617745047
3.790490738		2.838139347		-0.694938671
3.665760511		2.730119466		-0.500250768
3.414922705		2.7429553		-0.520980305
3.266054782		2.825191182		-0.555425111
3.264996418		3.038946982		-0.617745047
3.784097955		2.815276069		-0.69217987
3.662133279		2.709990645		-0.498618852
3.427202222		2.735562929		-0.521570867
3.276211354		2.816450719		-0.555680278
3.268487227		3.023534539		-0.616647605
3.795104171		2.805417691		-0.692615461
3.668027466		2.69697588		-0.498292457
3.738992594		2.965697616		-0.567633515
3.287098798		2.808319122		-0.55606294
3.254413577		2.992039801		-0.612257664
3.790136995		2.783804669		-0.690146995
3.746513801		2.952983342		-0.567397302
3.28738244		2.791159772		-0.554659727
3.246758942		2.966673372		-0.609102432
3.781876234		2.759915345		-0.68709774
3.746956505		2.934740059		-0.5660981
3.297446128		2.782340253		-0.554914835
3.23604619		2.938718422		-0.60539842
3.797534752		2.753526769		-0.688404572
3.697170285		2.877488548		-0.557239896
3.328766619		2.791329597		-0.558741871
3.234016727		2.918821527		-0.60334063
3.798739564		2.736658364		-0.687097741
3.695769363		2.858234903		-0.55570448
3.385317159		2.821106127		-0.566778545
3.231895796		2.898964908		-0.60128284
3.792635829		2.714625445		-0.684484135
3.691135875		2.836596504		-0.55369658
3.350414509		2.774647781		-0.559507254
3.239295719		2.887717567		-0.601008479
3.796108361		2.699536562		-0.683612894
3.706497989		2.621540328		-0.496878098
3.691928955		2.81923237		-0.552515513
3.296879331		2.713303952		-0.549174371
3.231828668		2.86331474		-0.597990398
3.766393452		2.661044601		-0.676788401
3.664172287		2.780281715		-0.54708249
3.361234403		2.749014537		-0.558486704
3.23390727		2.847494721		-0.596755747
3.806932337		2.672214373		-0.682596516
3.734740028		2.607283802		-0.498510015
3.669513288		2.766635985		-0.546610063
3.354258817		2.726178275		-0.555935386
3.244864207		2.839516966		-0.597167317
3.798070128		2.648637347		-0.679547261
3.732919483		2.589015208		-0.497204493
3.662884171		2.744053027		-0.54436595
3.35334778		2.708396418		-0.554404619
3.234874733		2.813297782		-0.593737666
3.804551542		2.635845742		-0.67925681
3.740026246		2.576986588		-0.497095656
3.656947593		2.722129895		-0.542239971
3.817510266		2.627526715		-0.680128049
3.810256912		2.608174281		-0.505364251
3.666878418		2.712078702		-0.542476242
3.270861045		2.809531732		-0.597167317
3.813302573		2.607425595		-0.677950035
3.823994979		2.600385378		-0.506125878
3.656777961		2.687291455		-0.539759702
3.733357898		2.958959926		-0.612702552
3.274945016		2.795624843		-0.596344178
3.81637352		2.592378546		-0.677078795
3.925859195		2.652077458		-0.518528771
3.655381627		2.669032941		-0.538342364
3.758780993		2.960379504		-0.615381423
3.281995746		2.784282809		-0.596069817
3.885819214		2.62216546		-0.687968981
4.058616469		2.723663731		-0.534957182
3.681235529		2.670634319		-0.540940768
3.767845618		2.948833796		-0.615381423
3.295066177		2.778031444		-0.596892898
3.905351463		2.617944419		-0.690001798
4.338248862		2.892056117		-0.57064278
3.695050425		2.663392388		-0.541767544
3.791750518		2.948829126		-0.617805187
3.314203286		2.776815425		-0.598813537
3.943834862		2.626241126		-0.695374321
4.328867602		2.866658137		-0.568249237
3.699974875		2.649730904		-0.541295117
3.705818992		2.863798335		-0.602369669
3.340214835		2.78121244		-0.60196877
3.956824844		2.617404424		-0.696245504
4.328506414		2.847354428		-0.567052435
3.709705074		2.639518486		-0.541531331
3.699641018		2.840938191		-0.599945905
3.34186323		2.765268472		-0.600734119
3.951606059		2.596559345		-0.693922291
4.307263792		2.814486189		-0.563135754
3.699135791		2.614941206		-0.538814848
3.696512095		2.820549635		-0.598032359
3.311311645		2.722916493		-0.593737666
4.305872595		2.794763933		-0.561830174
3.698825239		2.804401724		-0.597011867
3.334223172		2.724653761		-0.596344177
4.304400565		2.775077		-0.560524594
3.712667913		2.590489712		-0.538460499
3.691567948		2.781104721		-0.594460492
3.334108361		2.707543018		-0.594835166
4.311220001		2.760786011		-0.560306978
3.748345502		2.598321655		-0.542476243
3.696906712		2.76738846		-0.593950274
3.422567611		2.761996644		-0.609102432
4.323863281		2.75021391		-0.560850989
3.792284016		2.611590817		-0.547673053
3.702196292		2.753665883		-0.593439999
3.356840753		2.691991874		-0.595932608
4.337323132		2.740121076		-0.561503779
3.782248101		2.587608588		-0.545074647
3.701852926		2.735810441		-0.592036728
3.546352324		2.826135799		-0.628033942
4.347393384		2.727858185		-0.561721395
3.850942974		2.617297794		-0.553814715
3.703033939		2.71915699		-0.590888681
3.770884389		2.986198599		-0.666171436
4.361647165		2.718188124		-0.562482964
3.817805661		2.577688093		-0.547909265
3.694532477		2.695507252		-0.588209751
3.784698676		2.978290899		-0.666994575
4.362358527		2.700085232		-0.561503778
3.914761419		2.625701098		-0.560665076
3.705997076		2.686488423		-0.588720027
3.800841027		2.972157183		-0.668229227
4.359612588		2.679921704		-0.56008942
3.984776562		2.654973043		-0.56952328
3.711002379		2.672787161		-0.588209751
3.80915935		2.959874791		-0.668092076
4.34914832		2.65513837		-0.557695876
4.021057122		2.661369498		-0.573538965
3.714345375		2.657926331		-0.587444368
3.829982632		2.957254941		-0.670149808
4.346223098		2.635083121		-0.556281517
4.181874886		2.749395293		-0.595271116
3.718440529		2.643644956		-0.586806538
3.737658339		2.867708284		-0.652452949
4.363654774		2.627377018		-0.55747826
4.203592793		2.745239937		-0.597160823
3.732204455		2.6362299		-0.587699476
3.739349316		2.850822696		-0.651218298
4.387052411		2.623159939		-0.559436631
4.22449124		2.740436845		-0.59893251
3.73783898		2.623058075		-0.587316813
3.735444773		2.829767054		-0.649023299
4.41730245		2.62288392		-0.562265348
4.241226165		2.732841923		-0.600113577
3.760513948		2.621788673		-0.589612965
3.745691722		2.819484966		-0.64929766
4.439885674		2.617902719		-0.564114939
4.256281415		2.724099301		-0.60105843
3.774247222		2.614192444		-0.590505961
3.731320689		2.79077515		-0.645319288
4.454759174		2.608287134		-0.564985287
4.260428769		2.70836485		-0.600467926
3.804310696		2.61778123		-0.593950274
3.735889795		2.77636032		-0.644633358
4.475631066		2.602102386		-0.566617262
4.282152092		2.703763633		-0.602357632
3.821330968		2.612254633		-0.595353488
3.730843642		2.754882704		-0.642301207
4.283696854		2.686392985		-0.601412779
3.843275738		2.60999111		-0.597522141
3.731291307		2.73756417		-0.640929404
4.286861186		2.670088103		-0.600704139
3.888265058		2.623149053		-0.603262607
3.731668095		2.720268877		-0.639557544
4.260408925		2.635505357		-0.59586162
3.89958989		2.613416486		-0.603772882
3.715929394		2.691376299		-0.635441964
4.273551074		2.625541025		-0.596570318
3.929880648		2.616280596		-0.607217195
3.724972817		2.680541884		-0.635579172
4.331598649		2.64293286		-0.603538757
3.956916724		2.616794919		-0.610151234
3.733984946		2.669677295		-0.635716324
4.335440571		2.627058167		-0.602948195
3.983992122		2.617167907		-0.613085272
3.741350268		2.65763549		-0.635579173
4.355391256		2.620912864		-0.604601746
3.989510879		2.603306886		-0.612702551
3.749486106		2.646144763		-0.635579173
4.358297167		2.604482191		-0.603893048
4.027441431		2.610475864		-0.61729497
3.751909382		2.630648226		-0.634618882
4.373098979		2.59515283		-0.60483796
4.087969515		2.63193284		-0.625331644
3.781907867		2.63441194		-0.638322836
4.38959525		2.58676569		-0.606019027
4.08349109		2.61136334		-0.623418155
3.805448265		2.633506786		-0.640929405
4.445505228		2.601371398		-0.612633175
4.115762735		2.614244962		-0.627117577
4.144312796		2.813858949		-0.508031595
4.187196526		2.623699753		-0.635536971
4.347581264		2.932425551		-0.531844007
4.367301965		2.926272848		-0.533155725
4.260586759		2.633418109		-0.644211533
4.371290111		2.909552789		-0.532550322
4.267800819		2.619815617		-0.644083921
3.943176746		2.622811015		-0.655882543
4.376046188		2.893384721		-0.532045828
4.288521056		2.614454078		-0.645997467
3.966906923		2.62107641		-0.658489112
4.370765533		2.870660686		-0.530330525
4.319430111		2.615154112		-0.649441723
3.9914918		2.619764108		-0.661232774
4.380385306		2.857781485		-0.530431435
4.342732909		2.611089353		-0.651737931
4.005318968		2.611292866		-0.662193066
4.359910672		2.825392077		-0.526899921
4.333691609		2.58758443		-0.649186613
4.058208382		2.62806757		-0.669601087
4.375250558		2.816310742		-0.527707087
4.412420068		2.61626242		-0.659774663
4.053755962		2.607566769		-0.667543297
10.96657646		5.94476525		-0.564923611
4.377164839		2.798587025		-0.526899921
4.474271125		2.634416616		-0.667811337
4.086778394		2.611117201		-0.671658878
11.01467304		5.927187264		-0.566461828
4.387409698		2.786211551		-0.527101683
4.102297311		2.603343508		-0.672893529
11.03456785		5.894308241		-0.566552308
4.400144358		2.775392031		-0.527606235
4.134565843		2.60606288		-0.6768719
11.05259947		5.860426621		-0.566552308
4.412853975		2.764520338		-0.528110729
4.166050207		2.608083239		-0.68071312
11.06787432		5.825094636		-0.566416588
4.4196253		2.749917663		-0.527908908
4.212727309		2.619349262		-0.687023643
11.08038094		5.788336143		-0.566145148
4.422116774		2.73268454		-0.527202593
4.23001431		2.612137392		-0.688532654
11.08478448		5.747417419		-0.565466491
4.417760633		2.711298902		-0.525689112
4.238008465		2.599147472		-0.688532655
11.08282351		5.70332647		-0.564471212
4.399722367		2.681680694		-0.52256118
11.08781321		5.662936424		-0.563837853
4.367926642		2.643956031		-0.517818914
11.06771109		5.60992371		-0.561937717
4.379428456		2.632593321		-0.518222498
11.07862276		5.572799371		-0.561621037
4.39431845		2.62322475		-0.519029723
4.42202989		2.621399516		-0.52135043
9.743112427		5.274648733		-0.609147067
4.454057915		2.621952269		-0.524175631
9.809381599		5.271674285		-0.612276251
4.472388098		2.614300077		-0.525386382
9.827271162		5.242494964		-0.612386043
4.502759156		2.613552004		-0.528009819
9.873310619		5.228207455		-0.614252621
9.961779337		5.235985293		-0.618754203
10.04950258		5.242807251		-0.623200948
10.07795335		5.218378905		-0.623969549
10.20314896		5.243572787		-0.630721981
10.26099352		5.233568149		-0.633302147
10.28769234		5.207474243		-0.633960957
10.34881132		4.736758743		-0.515430059
10.38659891		5.217570998		-0.639066453
10.32600043		4.688054721		-0.513575163
10.49370548		5.231118305		-0.644666011
10.55439245		4.752745066		-0.524206784
10.64463078		4.754154927		-0.527961758
10.58426901		4.688299851		-0.524252024
10.41866158		5.035042468		-0.636211748
10.19817018		4.889947254		-0.621828491
10.17525467		4.840621099		-0.619522805
10.20269921		4.815347691		-0.620291347
12.26035141		5.207249034		-0.603242722
10.21651988		4.783600387		-0.620236451
12.31493709		5.185893862		-0.605142799
10.18677512		4.731623394		-0.617546494
10.2574688		4.726254964		-0.620950157
10.32459225		4.718836725		-0.624134237
10.43996432		4.732901536		-0.630227859
10.48539807		4.714772317		-0.632094437
10.58370957		4.7199963		-0.637145037
10.19194073		2.912754721		-0.582796091
10.22196937		2.887444182		-0.584003861
10.19134855		2.8450623		-0.58175301
10.15479054		2.801302505		-0.579172845
10.23269771		2.78904008		-0.583125467
10.17853665		2.740758465		-0.579557116
10.21488064		2.716961373		-0.581149156
10.30718569		2.707681233		-0.585925276
10.32510933		2.678553823		-0.586474235
10.4203325		2.669162821		-0.591415043
10.60755608		2.682468422		-0.601571197
32.13049526		7.722430922		-0.603350309
31.90272863		7.460929994		-0.598202375
31.88454669		7.353581511		-0.597435621
31.87576173		7.248632317		-0.596851496
31.95869031		7.061538645		-0.597581653
31.99290493		6.966222964		-0.597818998
32.2546104		6.91962937		-0.602309731
32.1827563		6.801002194		-0.600575534
31.9087993		6.436894574		-0.594332246
31.88328405		6.330013037		-0.593492535
31.68078349		6.188843847		-0.589366881
31.91759629		6.133507046		-0.59341952
31.71914399		5.994523261		-0.58938512
31.72460772		5.894807755		-0.589147834
31.71786203		5.692443532		-0.58836284
31.14893702		5.000369072		-0.576004115
30.71756722		4.737971021		-0.567478982
31.2430715		4.720939297		-0.576916841
30.7608982		4.551597886		-0.567752806
30.51249667		4.419224916		-0.562915174
30.80309609		4.364870812		-0.56802663
30.84416087		4.177797393		-0.568300454
30.468611		3.936702656		-0.560925392
30.50435368		3.846209535		-0.561363486
30.19944719		3.713677196		-0.555540112
30.20180388		3.525988204		-0.555175034
30.41092251		3.266985177		-0.55844268
30.06280583		3.136322056		-0.55187085
30.02951179		3.039746261		-0.551085857
30.04168082		2.947895588		-0.551140634
30.04162705		2.854863691		-0.550976304
29.9924967		2.757374928		-0.549917547
29.78768996		2.64641183		-0.546010939
30.03076632		2.575171777		-0.550319163
29.89205012		2.470918739		-0.547635642
29.87856039		2.377534129		-0.547252265
29.93546271		2.197305298		-0.548037258
30.06795529		1.836368193		-0.550008801
29.970636		1.738149862		-0.548128513
30.0965621		1.560225332		-0.550246147
11.2746699		-4.432262275		-0.54863688
11.2740186		-4.471988659		-0.549270239
12.96962948		-5.746858086		-0.510254015
12.88989185		-5.758900523		-0.507809688
12.83298266		-5.780769716		-0.506263962
12.68961941		-5.76308632		-0.501303425
12.54466958		-5.743745552		-0.496271004
12.50702751		-5.772991258		-0.49548017
12.46932377		-5.802059697		-0.494689336
12.22117349		-5.778080325		-0.486242046
12.13392353		-5.782443242		-0.483474185
11.18012923		-4.836734815		-0.551668015
12.07739079		-5.801037018		-0.481928518
11.13044382		-4.855832497		-0.549948897
11.09171934		-4.879498834		-0.5487726
10.95250653		-4.858415056		-0.542619851
11.05062736		-4.942569809		-0.548229721
10.20469623		-4.753379334		-0.50982013
10.75569592		-5.752735698		-0.552391913
10.69050657		-5.760118832		-0.549948898
10.64907829		-5.780022945		-0.54872736
10.62340691		-5.808353447		-0.548320201
10.56003516		-5.815858286		-0.545967665
10.4993378		-5.824482939		-0.543750849
10.46833813		-5.849357461		-0.54307225
10.34848681		-5.824121376		-0.53777906
10.23844907		-5.803624311		-0.532983509
10.20064195		-5.82361666		-0.53194299
10.12816713		-5.823513407		-0.529092815
10.06184187		-5.826525082		-0.52655932
10.01630412		-5.841262887		-0.525111583
9.961295691		-5.850211173		-0.523166265
9.929543826		-5.872607936		-0.522442368
9.904613856		-5.898954577		-0.522080448
9.871905022		-5.920578869		-0.521311369
9.868232012		-5.959617028		-0.522080448
9.829416359		-5.977407095		-0.52099469
9.815291582		-6.010143406		-0.521220889
9.817214533		-6.052810586		-0.522306648
9.886866728		-6.13769719		-0.527011719
9.95778374		-6.224126629		-0.53180727
9.993598147		-6.289232662		-0.534747925
10.00294643		-6.3380421		-0.536286083
10.0053522		-6.382669484		-0.53746238
10.0042153		-6.425211937		-0.538457659
9.987811265		-6.458043885		-0.538638619
9.961253689		-6.484295772		-0.538276699
9.927108909		-6.505517319		-0.53750762
9.902100555		-6.53264193		-0.537236181
9.871193949		-6.555805753		-0.536648061
9.864322066		-6.59494297		-0.5373719
9.826638139		-6.613462054		-0.536421803
9.78397148		-6.628450469		-0.535200324
9.734703698		-6.638736635		-0.533616868
9.685464739		-6.648782792		-0.53203347
9.636256506		-6.658589899		-0.530450013
8.954391147		-5.719135762		-0.584168548
9.5829782		-6.665305515		-0.528640416
8.920005443		-5.735779602		-0.583070571
9.507654007		-6.656287743		-0.525609222
8.842855305		-5.72459313		-0.579172844
9.452074889		-6.660681826		-0.523663905
8.792626672		-5.730433845		-0.577031845
9.415299568		-6.678090559		-0.522759047
8.750794409		-5.741497182		-0.575439805
9.318339966		-6.652383537		-0.518506434
8.699811874		-5.746305178		-0.573243851
9.080468499		-6.524715724		-0.506381836
8.65553484		-5.755277223		-0.571487124
8.992412784		-6.50336864		-0.502581623
8.963533705		-6.524459456		-0.502083983
8.93138752		-6.543072985		-0.501405326
8.904034692		-6.565107693		-0.500998166
8.87903762		-6.588822182		-0.500726726
8.963634114		-6.694338457		-0.506653276
8.96062245		-6.735011915		-0.507648614
8.997280951		-6.80586286		-0.510905948
9.020870469		-6.867319536		-0.513439443
9.008481842		-6.90164598		-0.513937082
8.979354486		-6.923151612		-0.513484683
8.947022946		-6.942093677		-0.512851324
8.793933764		-6.997869671		-0.508960572
8.740453363		-6.999214605		-0.507105676
8.683935662		-6.997790467		-0.505069878
8.690358705		-7.047050712		-0.506698516
8.606778869		-7.023152635		-0.503079262
8.453170873		-6.941119455		-0.495343056
6.511649252		-5.762299605		-0.630751142
8.424905378		-6.961293883		-0.494935897
6.483512045		-5.772964607		-0.629738221
6.450170259		-5.778852159		-0.628218898
6.416112836		-5.783921922		-0.626627156
6.396860347		-5.802239162		-0.626482495
6.379029395		-5.821837182		-0.626482496
6.363341915		-5.843404056		-0.626699516
6.356373009		-5.873051889		-0.627784797
6.347821083		-5.901353614		-0.628725359
6.318031859		-5.909899028		-0.627567718
6.299144639		-5.928571041		-0.627495358
7.861552843		-6.912356627		-0.474079814
6.266442567		-5.934152929		-0.626048336
8.019127365		-7.094646201		-0.484892395
6.25109553		-5.956102265		-0.626337776
7.927930327		-7.057441884		-0.480684992
6.225593358		-5.968350368		-0.625614236
8.07217936		-7.230364433		-0.490773734
6.198639274		-5.979112672		-0.624746034
8.049958917		-7.255095518		-0.490773734
6.177403486		-5.995323336		-0.624456653
8.011382101		-7.264994572		-0.489778426
6.151845222		-6.007278737		-0.623733172
7.969130868		-7.271358826		-0.488556918
6.11061958		-6.003756027		-0.621417948
7.849649266		-7.206594713		-0.482585099
6.08011376		-6.010554972		-0.620188007
7.801085838		-7.206240804		-0.480956432
6.060230491		-6.027773321		-0.620043287
7.74894001		-7.202255789		-0.479101565
6.057923958		-6.062564592		-0.62170733
6.039998193		-6.081829129		-0.621779689
6.010100988		-6.088973471		-0.620622107
5.983010484		-6.098839645		-0.619753847
5.960789954		-6.113596308		-0.619392107
7.608703046		-7.292621384		-0.477291909
5.896196273		-6.084582237		-0.614616999
7.634472366		-7.362391717		-0.480323073
5.871274509		-6.096177113		-0.613965819
7.708636907		-7.479692725		-0.486430582
7.140863768		-5.988584918		-0.601528641
5.849785521		-6.111279184		-0.613676438
7.564135428		-7.384672482		-0.478739646
5.828946487		-6.127029813		-0.613459359
7.584203861		-7.449846666		-0.481454101
5.812862486		-6.147782534		-0.613748798
7.54568098		-7.457630672		-0.480458793
5.793290913		-6.16486034		-0.613676438
7.497973309		-7.456091121		-0.478875365
5.758692306		-6.165840194		-0.612012395
7.48777465		-7.491777809		-0.479689684
7.033824077		-6.085010533		-0.600304839
5.737713126		-6.181285459		-0.611795316
7.51122071		-7.561491166		-0.482675609
7.004584533		-6.097388558		-0.59940308
5.71939852		-6.199592775		-0.611867676
7.452192584		-7.548244435		-0.480368313
6.974585016		-6.10898693		-0.598436948
5.699677246		-6.216375247		-0.611795316
7.485672331		-7.628828343		-0.484032836
6.924366278		-6.102643326		-0.595731673
5.677219875		-6.230146103		-0.611433575
7.495710795		-7.686086862		-0.486204382
6.894411318		-6.11392646		-0.59476554
5.65473198		-6.243837892		-0.611071834
7.490867207		-7.728415185		-0.48742589
7.079398538		-6.792746908		-0.539426739
6.858495993		-6.119768387		-0.593284068
5.633547752		-6.2589331		-0.610854754
7.479596833		-7.764310561		-0.488240239
7.049905319		-6.806112033		-0.538767988
6.854539821		-6.154114671		-0.594572303
5.615648922		-6.277673821		-0.610999474
7.420507346		-7.750420861		-0.485932943
7.03615351		-6.834665876		-0.539316947
6.824519352		-6.165081135		-0.593606171
5.588410741		-6.285928037		-0.610131273
7.395317187		-7.771702735		-0.485842463
7.038002443		-6.878553398		-0.541073675
6.747235351		-6.132962971		-0.588517723
5.563816606		-6.297064355		-0.609552453
5.468141019		-5.751867512		-0.651783757
7.368693672		-7.791451172		-0.485661503
6.998355628		-6.881910748		-0.539646323
6.735751627		-6.160368862		-0.58916181
5.544470997		-6.314104017		-0.609552452
5.440201764		-5.757750413		-0.65055602
7.346123295		-7.815477379		-0.485751983
6.96869193		-6.894922176		-0.538987572
6.705805335		-6.170868962		-0.588195678
5.519827223		-6.325072695		-0.608973632
5.430016118		-5.782405036		-0.651456348
7.314609846		-7.829948325		-0.485254315
6.948213588		-6.916973527		-0.539042468
6.689038898		-6.193446878		-0.588388917
5.501703221		-6.343484904		-0.609118352
5.414970558		-5.801951374		-0.651783757
7.286475274		-7.847959863		-0.484982875
6.917788949		-6.929071893		-0.538328821
6.680228098		-6.223462498		-0.589290675
5.484820392		-6.363355871		-0.609407791
5.393756163		-5.814883578		-0.651374511
7.259653915		-7.867340482		-0.484801915
6.890168633		-6.943883981		-0.537834699
6.648726126		-6.232326103		-0.588195678
5.46721893		-6.382425392		-0.609624813
5.369135252		-5.824076498		-0.65055602
7.229406014		-7.882949873		-0.484394756
6.866729262		-6.962857001		-0.537670011
6.631026279		-6.254064323		-0.588324484
5.44179302		-6.392333547		-0.608973632
5.346529442		-5.835377131		-0.649983041
7.193747435		-7.892540717		-0.483625647
6.842539389		-6.981038994		-0.537450428
6.608912419		-6.271630711		-0.588066872
5.411849028		-6.396815422		-0.60781605
5.333969644		-5.857647954		-0.650637857
7.167487794		-7.912353127		-0.483489928
6.816212361		-6.996991831		-0.537066156
6.601910074		-6.303592351		-0.58916181
5.386422073		-6.406518305		-0.60716487
5.317310947		-5.875462821		-0.650801532
7.147189559		-7.938759338		-0.483761367
6.784295879		-7.00711062		-0.536242659
6.582540069		-6.32381714		-0.58916181
5.358428252		-6.413063224		-0.606224367
5.295261121		-5.887302531		-0.650310449
7.109477705		-7.945760272		-0.482856568
6.750304228		-7.01494065		-0.535254533
6.560955222		-6.341901903		-0.588968572
5.341913764		-6.433309226		-0.606586108
5.273189337		-5.899061758		-0.649819366
7.079092912		-7.960816042		-0.48244938
6.725990488		-7.032730916		-0.535034949
6.53932179		-6.359913266		-0.588775393
5.319612326		-6.446590676		-0.606296668
5.253080684		-5.912976852		-0.649573795
7.05397429		-7.981747501		-0.482404139
6.713325426		-7.062741152		-0.535748596
6.517639303		-6.377851698		-0.588582155
5.304236413		-6.468279373		-0.606803129
5.23557459		-5.929812196		-0.649655632
7.028135151		-8.001850317		-0.48231366
6.695054207		-7.086933566		-0.536023075
6.493063901		-6.392916738		-0.588131246
5.285627006		-6.486068156		-0.606947848
5.21998679		-5.948843474		-0.64998304
6.996326466		-8.01509632		-0.48181602
6.675330555		-7.109624015		-0.536187763
6.477673863		-6.417021215		-0.588517723
5.27135246		-6.509229601		-0.607599029
5.208262291		-5.972341398		-0.650801532
6.960574792		-8.023695174		-0.481046912
6.654168296		-7.130800103		-0.536242659
6.455128929		-6.43404613		-0.588260111
5.260111965		-6.536249751		-0.608611891
5.191872876		-5.990551772		-0.651047103
6.930054938		-8.038202158		-0.480639752
6.633617831		-7.152645744		-0.536352451
6.424085368		-6.442513294		-0.587229546
5.2387882		-6.550798845		-0.60846723
5.183225831		-6.017779248		-0.652274898
6.899511693		-8.052598625		-0.480232593
6.615703319		-7.177368708		-0.536681885
6.394455201		-6.452268907		-0.586327788
5.217425253		-6.565278474		-0.60832251
5.168627821		-6.038195697		-0.652765982
6.875421918		-8.074488235		-0.480277833
6.5815115		-7.184378681		-0.5356937
6.369727907		-6.466879728		-0.585876879
5.181805281		-6.561686116		-0.606513748
5.161702556		-6.067688382		-0.654239348
6.850617328		-8.095543498		-0.480277833
6.566161422		-7.211919918		-0.536242659
6.346367264		-6.482825743		-0.585554835
5.173348731		-6.592460521		-0.607888409
5.146923744		-6.088062626		-0.654730431
6.823176742		-8.113465108		-0.480096873
6.546684317		-7.234992323		-0.536462243
6.325752755		-6.501550344		-0.585490462
5.154325864		-6.609874577		-0.60803313
5.128221473		-6.103824543		-0.654730431
6.796330725		-8.132060139		-0.479961124
6.529130761		-7.260240155		-0.536846573
6.305082487		-6.520209195		-0.585426029
5.143796812		-6.638270825		-0.609190712
5.103722238		-6.112643363		-0.653993777
6.773265023		-8.155178576		-0.480096873
6.50682599		-7.280237149		-0.536846573
6.279517037		-6.533766422		-0.584910747
5.124015588		-6.654810684		-0.609263072
5.085581577		-6.129039727		-0.654075615
6.74884934		-8.176690206		-0.480142113
6.488438423		-7.304644507		-0.537175948
6.248413622		-6.541455278		-0.583880183
5.098120269		-6.663370354		-0.608611891
5.066753743		-6.144613195		-0.654075615
6.733868309		-8.209715673		-0.480865952
6.465997724		-7.324516765		-0.537175948
6.224192892		-6.556251935		-0.583493707
5.057733774		-6.652778499		-0.606224367
5.051668545		-6.164754418		-0.654566756
6.703600292		-8.22414177		-0.480504033
6.434276796		-7.333811451		-0.536407347
6.207473778		-6.578945563		-0.583815751
5.043311434		-6.676222495		-0.606947849
5.032102441		-6.179450778		-0.654484861
6.685883039		-8.253984156		-0.481046912
6.401903535		-7.342228382		-0.535583908
6.196134363		-6.607422334		-0.584653077
5.031786254		-6.703628701		-0.608033129
5.01437448		-6.196409389		-0.654648594
6.64612107		-8.25655922		-0.480006393
6.373462721		-7.355043293		-0.535089845
6.186720416		-6.638080721		-0.5856837
5.015370047		-6.724631155		-0.608539531
4.994091555		-6.210210527		-0.65448486
6.639479654		-8.300313141		-0.481363621
6.341094167		-7.363212969		-0.534266347
6.162935089		-6.653369761		-0.585361597
4.995903399		-6.741589254		-0.608684251
4.973770895		-6.223945998		-0.654321186
6.605902121		-8.310477839		-0.480775472
6.325616105		-7.390976953		-0.534870202
6.143845653		-6.673714312		-0.585490462
4.975196858		-6.756884323		-0.608684251
4.952173191		-6.236054169		-0.653993777
6.587805498		-8.340111955		-0.481318351
6.31196811		-7.420997444		-0.535638804
6.135467413		-6.705784371		-0.586649832
4.954443474		-6.772116625		-0.608684251
4.933018234		-6.251217591		-0.653993777
6.554169151		-8.350068108		-0.480730232
6.293682833		-7.445665083		-0.536023075
6.120907931		-6.731221233		-0.587229546
4.932470691		-6.785671124		-0.608539531
4.921811602		-6.276518241		-0.65505784
6.525448443		-8.366198498		-0.480504033
6.272737235		-7.467232452		-0.536187763
6.102235245		-6.752189266		-0.587422726
4.908709642		-6.796729089		-0.608177791
4.904982498		-6.294733242		-0.655385248
6.499138534		-8.38538939		-0.480458793
6.251718159		-7.488741293		-0.536352451
6.074155983		-6.762712273		-0.586714264
4.886671752		-6.810136143		-0.60803313
4.886867753		-6.311328108		-0.655548923
6.470944068		-8.40212283		-0.480277833
6.230626079		-7.510191611		-0.536517139
6.052050525		-6.779826695		-0.5865854
4.867492372		-6.827532604		-0.608250151
4.861404375		-6.318392113		-0.654730431
6.41963722		-8.388616368		-0.478377697
6.201204075		-7.521567446		-0.53596818
6.018638766		-6.784178668		-0.585361597
4.848252296		-6.844875376		-0.60846723
4.831706583		-6.319816731		-0.653338961
6.417453564		-8.439284724		-0.480142113
6.180630204		-7.543646501		-0.536187763
5.986577392		-6.789886865		-0.584266659
4.827229662		-6.859717333		-0.60846723
4.811691834		-6.333817131		-0.653257123
6.402974553		-8.474076486		-0.481001672
6.130979691		-7.530052081		-0.533882076
5.957168638		-6.798464297		-0.583429333
4.807304566		-6.876129712		-0.608611891
4.791636921		-6.347753807		-0.653175227
6.379945276		-8.49767514		-0.481227872
6.144275919		-7.59384751		-0.537066156
5.934316851		-6.814450927		-0.583236095
4.788462217		-6.894122532		-0.608901331
4.773335712		-6.364019046		-0.653338961
6.350858153		-8.51320493		-0.481001672
6.127206133		-7.620443586		-0.537615115
5.912729604		-6.831870565		-0.583171663
4.775785699		-6.921094398		-0.609986553
4.750811044		-6.374637755		-0.652929715
6.314597385		-8.519006463		-0.480232593
6.109407669		-7.646226324		-0.538109178
5.889139131		-6.846951906		-0.582914051
4.760732949		-6.944762941		-0.610782395
4.738941675		-6.399595601		-0.653993777
6.286654448		-8.535926112		-0.480096873
6.092129363		-7.67275355		-0.538658196
5.868753451		-6.865746011		-0.582978424
4.736597249		-6.955214241		-0.610420654
4.720467033		-6.415709732		-0.654157452
6.260437064		-8.555172911		-0.480096873
6.072890701		-7.696895312		-0.539042468
5.843785802		-6.87915579		-0.582591948
4.716913138		-6.972191269		-0.610637733
4.698409316		-6.426943615		-0.653830044
6.235335363		-8.575955306		-0.480187353
6.031998303		-7.693488439		-0.537505324
5.813640616		-6.886376342		-0.581690248
4.702176997		-6.996563304		-0.611505935
4.682183677		-6.446166129		-0.654321186
6.206070273		-8.590995816		-0.479961124
6.005297932		-7.708019854		-0.537230844
5.787996721		-6.898828402		-0.58123934
4.690103832		-7.025057805		-0.612735876
4.670550326		-6.471814688		-0.655467085
6.177354368		-8.606748912		-0.479780164
5.963284798		-7.702721681		-0.535583908
5.753383952		-6.900457335		-0.579886731
4.667978284		-7.038582702		-0.612663517
4.651834856		-6.487733098		-0.655630819
6.148600185		-8.622406833		-0.479599204
5.928666366		-7.706735342		-0.534595723
5.730276265		-6.915771141		-0.579693493
4.644167421		-7.049539096		-0.612374136
4.633643305		-6.504409385		-0.655876331
6.126738076		-8.647751415		-0.479961124
5.911058525		-7.732820532		-0.535144741
5.705225883		-6.928696605		-0.579307017
4.624156295		-7.066257811		-0.612591157
4.614242352		-6.519408356		-0.655958227
6.113403576		-8.685295603		-0.481001672
5.874019478		-7.733426091		-0.533936972
5.685206074		-6.947711892		-0.579435881
4.600824771		-7.077902726		-0.612374136
4.595938941		-6.535979652		-0.656203739
6.102758303		-8.726933154		-0.48226842
5.844852431		-7.744238043		-0.533442909
5.662605081		-6.963572562		-0.579307017
4.582334386		-7.097011801		-0.612808237
4.577577684		-6.552500126		-0.65644931
6.081085543		-8.752998364		-0.482675608
